# .PCD v0.7 - Point Cloud Data file format
VERSION 0.7
FIELDS x y z rgb
SIZE 4 4 4 4
TYPE F F F F
COUNT 1 1 1 1
WIDTH 1014
HEIGHT 1
VIEWPOINT 0 0 0 1 0 0 0
POINTS 1014
DATA ascii
0.074545205 0.73047394 -0.63845283 5.8083233e-39
0.12415592 0.7290585 -0.6386115 5.7161277e-39
0.17399444 0.72552037 -0.63902426 5.8083233e-39
0.22362141 0.72052723 -0.63896734 5.7161262e-39
0.27827749 0.725205 -0.63945645 5.623932e-39
0.32737669 0.72534215 -0.63927078 5.7161262e-39
0.37431622 0.72608638 -0.64000136 5.7161277e-39
0.4193089 0.72097069 -0.63984609 5.9005189e-39
0.47796777 0.7245748 -0.64052874 5.8083233e-39
0.52014768 0.72410583 -0.64088559 5.7161262e-39
0.57333392 0.73204368 -0.64118522 5.8083219e-39
0.62321371 0.72793442 -0.64199489 5.623932e-39
0.67248064 0.72293574 -0.64196438 5.7161262e-39
0.72256833 0.72755414 -0.64266312 5.6239306e-39
0.77211773 0.72841376 -0.64307827 5.8083233e-39
0.82466769 0.72623676 -0.64351088 5.6239334e-39
0.87528449 0.72269815 -0.64403367 5.7161291e-39
0.9226203 0.7240231 -0.64389402 5.8083233e-39
0.97692955 0.71766335 -0.64375585 5.9005189e-39
1.0269642 0.72421139 -0.64403063 5.8083219e-39
1.0763357 0.72976232 -0.64426172 5.7161277e-39
1.124413 0.72498333 -0.64456481 5.6239306e-39
1.1774182 0.72733337 -0.64470667 5.531735e-39
1.2266467 0.72495741 -0.64432937 5.6239306e-39
1.2772528 0.7264334 -0.64471734 5.6239306e-39
1.3255392 0.72418582 -0.6449365 5.5317364e-39
1.3750514 0.72493851 -0.64515561 5.623932e-39
1.4230794 0.72090632 -0.64499718 5.7161277e-39
1.4734297 0.72612864 -0.6449517 5.9005189e-39
1.5220577 0.72036934 -0.6453265 5.8083219e-39
1.5779426 0.72965658 -0.64553118 5.623932e-39
1.6269021 0.7249645 -0.64545429 5.3473451e-39
1.6805182 0.72577482 -0.64540106 5.623932e-39
1.7251731 0.72270095 -0.6458075 5.8083233e-39
1.7708644 0.72087109 -0.64539272 5.7161277e-39
1.8219956 0.72324371 -0.64551222 5.9005203e-39
1.8772739 0.72442275 -0.64540523 5.9005189e-39
1.9271307 0.72325552 -0.64558536 5.9005189e-39
1.9774079 0.72837335 -0.64560974 5.7161277e-39
2.0282779 0.72261059 -0.64557964 5.7161277e-39
2.0784433 0.72338188 -0.64535177 5.7161277e-39
2.126456 0.72423822 -0.64550382 5.7161277e-39
2.1782508 0.7270571 -0.64550728 5.8083233e-39
2.2273495 0.72397774 -0.64547944 5.7161262e-39
2.274543 0.72073096 -0.64524007 5.8083233e-39
2.3233018 0.71948296 -0.64522117 5.7161277e-39
2.37287 0.72319168 -0.64539087 5.8083247e-39
2.4249055 0.72191137 -0.64496332 5.623932e-39
2.4701586 0.72363883 -0.64470035 5.531735e-39
2.5236642 0.72153944 -0.64493304 5.6239306e-39
2.5763247 0.7248221 -0.64477676 5.6239306e-39
2.6229041 0.72846776 -0.64434558 5.623932e-39
2.6780157 0.7330876 -0.64483893 5.9005175e-39
2.7242761 0.72862273 -0.644575 5.9927131e-39
2.7771411 0.73128217 -0.64481008 5.9927145e-39
2.8239472 0.73151034 -0.64497173 5.9005203e-39
2.8760767 0.72848558 -0.64497161 6.0849116e-39
2.9219527 0.72682565 -0.64404875 6.0849102e-39
2.9802141 0.72745478 -0.64500308 5.7161277e-39
3.0233889 0.72611111 -0.64447725 6.0849088e-39
3.0783906 0.72977448 -0.64442748 6.1771044e-39
3.1217439 0.7276215 -0.64518261 6.1771044e-39
3.1759334 0.73100281 -0.64389694 5.9927145e-39
3.2208548 0.7272343 -0.64510602 5.9927131e-39
3.2750983 0.72746187 -0.64431757 5.9927145e-39
3.3229334 0.72602564 -0.64469188 6.0849088e-39
3.3790963 0.72286868 -0.64412427 5.9927145e-39
3.4261529 0.72447902 -0.6444723 5.8083219e-39
3.4760265 0.72355527 -0.64492399 5.8083219e-39
3.5260737 0.72204715 -0.64394838 5.7161277e-39
3.5734115 0.72006178 -0.64434236 5.8083233e-39
3.6188507 0.71748519 -0.64584279 5.9005189e-39
3.6765318 0.72095543 -0.64374459 5.7161277e-39
3.7284617 0.71463573 -0.64560866 5.8083233e-39
3.780463 0.71554428 -0.64503151 5.8083233e-39
3.8242338 0.71812636 -0.64429259 5.8083233e-39
3.8773592 0.71500003 -0.6444149 5.623932e-39
3.9281516 0.71924049 -0.64410055 5.6239306e-39
3.9728649 0.71096468 -0.64564538 5.6239306e-39
4.0270772 0.71446061 -0.64306146 5.7161262e-39
4.0716929 0.72079521 -0.64542049 5.7161262e-39
4.124198 0.72444439 -0.64496541 5.8083233e-39
4.1688924 0.72644085 -0.64427185 5.9005175e-39
4.2265353 0.73302412 -0.64569885 5.7161277e-39
4.2802253 0.73626345 -0.6453253 5.7161277e-39
4.3246775 0.7301237 -0.64352345 5.3473451e-39
4.3747854 0.73631316 -0.64651322 5.3473437e-39
4.41681 0.7348544 -0.64383191 5.5317364e-39
4.4697294 0.73533595 -0.64446712 5.623932e-39
4.5235138 0.73372674 -0.64515072 5.9005189e-39
4.5764866 0.73070288 -0.64537108 5.5317378e-39
4.6269598 0.73372746 -0.64499384 5.5317378e-39
4.6747108 0.73081946 -0.64566898 5.7161277e-39
4.7218971 0.72794938 -0.64494658 5.9005189e-39
4.777668 0.72894657 -0.64574313 5.623932e-39
4.8248091 0.72985923 -0.64494771 5.531735e-39
4.8781533 0.72769225 -0.64685124 5.4395408e-39
4.927794 0.72499853 -0.64458686 5.7161262e-39
4.9724035 0.72386158 -0.6455372 5.7161262e-39
5.0256295 0.72226405 -0.64366853 5.623932e-39
5.0714464 0.7190215 -0.6464293 5.623932e-39
5.1216168 0.72133827 -0.64577001 5.5317364e-39
5.1784458 0.71653384 -0.6467039 5.531735e-39
5.2240739 0.71481276 -0.64589685 5.3473451e-39
5.2783184 0.71408057 -0.64794534 5.3473451e-39
5.3251238 0.71164125 -0.64593595 5.5317364e-39
5.3822851 0.71051329 -0.64885873 5.4395408e-39
5.4272628 0.71116722 -0.64739317 5.6239306e-39
5.4736919 0.70962763 -0.64863092 5.6239306e-39
5.5275602 0.70469177 -0.64803416 5.9005175e-39
5.5738397 0.70883936 -0.64751971 5.7161277e-39
5.6225128 0.73066843 -0.64741421 5.6239306e-39
5.6759615 0.71704376 -0.64772451 5.5317364e-39
5.723516 0.72346491 -0.64793545 5.5317364e-39
5.7761269 0.73482174 -0.64824349 5.623932e-39
5.8251228 0.74088734 -0.64728951 5.4395394e-39
5.8771954 0.73066425 -0.64770281 5.5317364e-39
5.9286194 0.7417841 -0.64792484 5.623932e-39
5.9732661 0.73787796 -0.64739364 5.5317364e-39
6.035861 0.73844475 -0.64887011 5.7161277e-39
6.0658722 0.73842764 -0.64729327 5.7161277e-39
6.1314497 0.73612416 -0.64852023 5.7161277e-39
6.1678352 0.73711962 -0.64817071 5.7161291e-39
6.2227616 0.73422641 -0.64758682 5.8083233e-39
6.2734714 0.73228067 -0.64851713 5.623932e-39
6.3171649 0.7282027 -0.64820021 5.7161262e-39
6.365654 0.73064989 -0.6481604 5.5317364e-39
6.4193802 0.72521383 -0.6485008 5.8083219e-39
6.4677124 0.72628587 -0.6479153 5.7161277e-39
6.5321298 0.72311908 -0.64844793 5.623932e-39
6.5639968 0.72227407 -0.64812189 5.7161262e-39
6.6212549 0.72021323 -0.64829302 5.4395408e-39
6.6762161 0.71920609 -0.64837027 5.5317364e-39
6.7350755 0.71828228 -0.64761829 5.8083219e-39
6.7781906 0.71380836 -0.64900279 5.8083219e-39
6.8082161 0.71641266 -0.64774334 5.8083219e-39
6.8750186 0.71245521 -0.64839417 5.9927131e-39
6.9189959 0.71328181 -0.64855468 5.9927131e-39
6.9718537 0.710796 -0.64811742 5.9005175e-39
7.0364056 0.71726751 -0.64930564 5.7161262e-39
7.0834351 0.70683193 -0.6483109 5.5317364e-39
7.1408057 0.70522237 -0.64846879 5.7161277e-39
7.1813326 0.72872132 -0.64881468 5.7161277e-39
7.2453699 0.70395446 -0.64888072 5.9005203e-39
7.3215346 0.72688949 -0.64864665 5.9005175e-39
7.4253678 0.7443285 -0.64854103 5.7161277e-39
7.4842062 0.74902189 -0.64947212 5.7161262e-39
7.5301814 0.74058878 -0.6487326 5.7161262e-39
7.6272254 0.73838854 -0.64907247 5.8083219e-39
7.6582365 0.73984957 -0.64942408 5.9005189e-39
7.7132306 0.73412412 -0.64910787 5.9005175e-39
7.8231635 0.73040915 -0.64931744 5.8083219e-39
7.9179306 0.72332805 -0.64904994 5.7161277e-39
7.9946365 0.72484791 -0.64967072 5.7161262e-39
8.0514507 0.71912348 -0.64931446 5.7161277e-39
8.1993217 0.71404493 -0.64961344 5.9005175e-39
-4.8934236 0.75059956 -0.62891626 8.0858355e-39
-4.8026299 0.78738755 -0.64573008 7.1915884e-39
-4.7636003 0.78595603 -0.64643657 6.2696588e-39
-4.7129822 0.7906816 -0.64613485 6.1774631e-39
-4.6256723 0.77041018 -0.64495683 9.4042275e-39
-4.5669785 0.77377731 -0.64645845 1.1893075e-38
-4.5297189 0.76680356 -0.6466828 1.180124e-38
-4.4206939 0.7685433 -0.64567882 9.7726289e-39
-4.3616962 0.79721028 -0.64735943 7.2837799e-39
-4.3413138 0.77770805 -0.64568686 6.7306313e-39
-4.2615047 0.75381726 -0.64624864 6.7302768e-39
-4.2260737 0.77441019 -0.64609373 6.730274e-39
-4.1823049 0.76181883 -0.64705271 9.7729932e-39
-4.1080942 0.76788986 -0.64634436 1.1800879e-38
-4.0662365 0.77225316 -0.64609903 1.1800879e-38
-4.025351 0.76969886 -0.6471929 1.1800881e-38
-3.9653606 0.78098273 -0.64643359 1.0141765e-38
-3.8838761 0.77348197 -0.64720023 6.1774631e-39
-3.8322186 0.79319292 -0.64651519 6.2696588e-39
-3.7653875 0.76748556 -0.64747566 6.0852675e-39
-3.7299483 0.77599877 -0.64610875 6.1771044e-39
-3.6238766 0.7657057 -0.64720905 5.716485e-39
-3.588393 0.75330287 -0.64680612 6.0849074e-39
-3.5125046 0.76471996 -0.64845335 6.6380811e-39
-3.4871988 0.78284657 -0.64662039 5.6242894e-39
-3.4129035 0.77214009 -0.64972734 5.993432e-39
-3.3753638 0.77506292 -0.6468786 6.2696602e-39
-3.3113618 0.77616847 -0.64977211 5.4402596e-39
-3.2695847 0.77163351 -0.64701158 5.8086806e-39
-3.2153919 0.77053273 -0.6498245 6.0849088e-39
-3.1694465 0.7721383 -0.64711773 6.2696588e-39
-3.1251523 0.78355545 -0.64985418 5.716485e-39
-3.0726717 0.77775884 -0.64702159 6.0852675e-39
-3.027195 0.78709316 -0.64771384 5.9930719e-39
-2.9720893 0.76687706 -0.64788771 5.9930719e-39
-2.9340191 0.77680832 -0.64690167 5.6242908e-39
-2.8744383 0.7778089 -0.64785016 6.1774631e-39
-2.8223612 0.78838319 -0.64715999 6.0852675e-39
-2.7799025 0.77725196 -0.64735961 5.6242908e-39
-2.7310035 0.77448732 -0.64773297 5.9930719e-39
-2.6749938 0.77793664 -0.64747113 6.2696588e-39
-2.6111596 0.76425534 -0.647295 5.9008762e-39
-2.5714266 0.77889395 -0.64793593 5.9008762e-39
-2.5305355 0.76631379 -0.64551288 5.8090407e-39
-2.4738407 0.77957517 -0.64746869 5.8086806e-39
-2.4200687 0.77589822 -0.64765179 5.9927131e-39
-2.3751919 0.77485788 -0.64776409 6.0852675e-39
-2.3337739 0.77159399 -0.64408827 6.1774631e-39
-2.2798021 0.76987302 -0.64514434 5.8086806e-39
-2.2213187 0.77748054 -0.64462692 5.8090407e-39
-2.1762233 0.77886605 -0.64549088 6.1774645e-39
-2.1226604 0.77358937 -0.64257956 6.0852675e-39
-2.0731742 0.7732507 -0.64496315 5.8086806e-39
-2.0225091 0.77617657 -0.64437288 6.0852675e-39
-1.9755535 0.78143704 -0.64570642 6.1774645e-39
-1.9266957 0.77001619 -0.64462179 5.8086806e-39
-1.8729894 0.77775741 -0.64400721 6.0852675e-39
-1.8262585 0.77331352 -0.6449728 6.0852689e-39
-1.7779382 0.77808708 -0.64309961 6.2696602e-39
-1.7360203 0.77574009 -0.64549124 5.9930719e-39
-1.6786525 0.7724039 -0.6456604 6.2696588e-39
-1.6194191 0.77700067 -0.64139003 5.7168451e-39
-1.5757295 0.7848565 -0.64388424 6.0852675e-39
-1.5246631 0.77491564 -0.64623374 6.1774631e-39
-1.4801391 0.77908802 -0.64478278 5.716485e-39
-1.4333043 0.77646393 -0.64316022 5.9008776e-39
-1.37927 0.77277201 -0.6442889 6.1774645e-39
-1.3253093 0.77288121 -0.6461367 6.2696588e-39
-1.2787378 0.77509934 -0.64378804 5.8086806e-39
-1.2262746 0.77427751 -0.6450966 5.9930719e-39
-1.1711209 0.774095 -0.64430475 6.1774631e-39
-1.1250521 0.77757376 -0.64559877 5.9930719e-39
-1.0765063 0.77839065 -0.64420801 5.9930719e-39
-1.0197548 0.77708071 -0.64412737 6.1774631e-39
-0.96948087 0.77525198 -0.6460588 5.9930719e-39
-0.91967189 0.77686763 -0.64650488 5.9008762e-39
-0.87795305 0.77616513 -0.64372295 5.9930719e-39
-0.82941228 0.77534109 -0.64535171 6.1774645e-39
-0.77325761 0.77444434 -0.6456039 5.9008762e-39
-0.72559339 0.77508795 -0.64492768 5.9930719e-39
-0.67658854 0.77970475 -0.64341271 5.9008762e-39
-0.62555349 0.76708359 -0.64441162 5.9930719e-39
-0.57106209 0.78081435 -0.64456379 5.9008762e-39
-0.52323902 0.78118849 -0.64242673 5.9930719e-39
-0.47680509 0.78132373 -0.64399165 5.9008762e-39
-0.42889628 0.77671379 -0.64378709 5.716485e-39
-0.37640116 0.77736408 -0.64186043 6.0852675e-39
-0.32808644 0.78291994 -0.6432935 6.3618544e-39
-0.27574566 0.77182734 -0.6417194 5.5320937e-39
-0.23045859 0.77560854 -0.64195389 5.8090421e-39
-0.18069276 0.77359045 -0.64252627 6.0852689e-39
-0.12085258 0.77476877 -0.64252639 6.2696588e-39
-0.078422472 0.77244079 -0.64263213 5.6242908e-39
-0.035560712 0.77545595 -0.64301825 6.0852675e-39
0.025955534 0.77820563 -0.63829082 5.9927145e-39
0.069388688 0.7830525 -0.63825643 5.9927145e-39
0.12209658 0.77918023 -0.63847917 5.9927145e-39
0.17435816 0.77783942 -0.63881618 6.0849102e-39
0.23013321 0.77279222 -0.63880593 5.9005175e-39
0.27517697 0.77580452 -0.63951868 5.9927131e-39
0.32753119 0.77601051 -0.63923913 5.7161277e-39
0.3774409 0.77765465 -0.64059281 5.7161277e-39
0.42272833 0.77421993 -0.63990992 5.8083233e-39
0.47698769 0.77385467 -0.64099175 5.9005189e-39
0.52403462 0.7762748 -0.64146966 5.8083233e-39
0.57082725 0.78272295 -0.64154327 5.8083233e-39
0.62197411 0.77808541 -0.64205313 5.7161277e-39
0.67417055 0.77527851 -0.64303297 5.8083219e-39
0.72542292 0.77300197 -0.64298463 5.5317364e-39
0.77754861 0.77881205 -0.64308846 5.5320965e-39
0.82707572 0.7738772 -0.64339167 5.623932e-39
0.87423086 0.77246356 -0.643803 5.7161291e-39
0.92574799 0.77260345 -0.64366639 5.9005189e-39
0.97990835 0.76882899 -0.64395344 5.8083219e-39
1.0283154 0.77255058 -0.64422369 5.7161277e-39
1.078824 0.78006852 -0.64428443 5.7161277e-39
1.1291442 0.77654314 -0.64439124 5.5317364e-39
1.1764575 0.77429575 -0.64431214 5.7161262e-39
1.2264798 0.77408659 -0.64449632 5.623932e-39
1.2751155 0.77749282 -0.64479703 5.6239306e-39
1.3276738 0.77502477 -0.64455569 5.623932e-39
1.3776411 0.77451771 -0.64489031 5.7161277e-39
1.426461 0.77424878 -0.64483404 5.7161277e-39
1.4753596 0.77358401 -0.64515972 5.9005175e-39
1.5239198 0.76809829 -0.64517695 5.8083233e-39
1.573269 0.77972335 -0.6453433 5.8083233e-39
1.6229367 0.77478772 -0.64559919 5.5317364e-39
1.6760319 0.77485371 -0.64545685 5.5320951e-39
1.7250634 0.77148449 -0.64569461 5.7161277e-39
1.7778969 0.77456039 -0.64570367 5.9927145e-39
1.8274379 0.77791631 -0.64566368 5.9927131e-39
1.8705759 0.77107835 -0.64563411 5.9927131e-39
1.9257852 0.77409554 -0.64559108 5.9005189e-39
1.9800705 0.77833861 -0.64561534 5.9005189e-39
2.0296667 0.77466142 -0.64554304 5.7161262e-39
2.0789144 0.77172089 -0.64556283 5.7161277e-39
2.1303298 0.77515513 -0.64537954 5.7161277e-39
2.1781452 0.77813959 -0.64539504 5.8083233e-39
2.2288775 0.77277285 -0.64525115 5.9005189e-39
2.2800918 0.7680757 -0.64521205 5.900879e-39
2.3264227 0.77423304 -0.64512742 5.8083247e-39
2.3703084 0.77226037 -0.64479983 5.6242922e-39
2.42471 0.77299339 -0.64511633 5.7161277e-39
2.4794893 0.77480781 -0.64485276 5.7161262e-39
2.5231211 0.77069932 -0.64446104 5.7161277e-39
2.577471 0.77530509 -0.6449312 5.7161277e-39
2.6269896 0.77462685 -0.64457041 5.8083233e-39
2.670752 0.78180587 -0.64454615 5.9927145e-39
2.7250838 0.78174078 -0.6445207 5.9927145e-39
2.7732685 0.77653974 -0.64463037 5.9927145e-39
2.8311851 0.78429252 -0.64499635 5.900879e-39
2.875155 0.77576768 -0.64446294 5.8086834e-39
2.9287198 0.78047955 -0.64438659 5.9008776e-39
2.9761682 0.77573645 -0.64518434 5.8083233e-39
3.0301175 0.77565086 -0.64402819 6.0849102e-39
3.076232 0.77502459 -0.64478827 6.0849102e-39
3.1286016 0.78263199 -0.64493495 6.1771044e-39
3.1741571 0.77835518 -0.64443201 6.0849088e-39
3.2232683 0.78077835 -0.64420432 6.0852689e-39
3.2768152 0.77378446 -0.64501679 5.9927145e-39
3.3200505 0.77667934 -0.64456826 6.08455e-39
3.3744719 0.77782726 -0.64421856 5.9927145e-39
3.4224865 0.77412641 -0.64444757 5.9927131e-39
3.4747996 0.77215004 -0.64484394 5.7161277e-39
3.5239992 0.7724573 -0.64381647 5.7161291e-39
3.5760808 0.76978451 -0.64565301 5.7161277e-39
3.6225958 0.76822853 -0.64432269 5.9005175e-39
3.6721094 0.76829386 -0.64431089 5.8083233e-39
3.7262833 0.76688921 -0.64470249 5.9005203e-39
3.779968 0.76253283 -0.64397985 5.8083247e-39
3.8218946 0.76886374 -0.64454669 5.7164878e-39
3.8777161 0.76306301 -0.64517742 5.7161277e-39
3.9277053 0.76535195 -0.64345276 5.623932e-39
3.970881 0.75972939 -0.64544964 5.7161277e-39
4.0294652 0.76330376 -0.64456391 5.7161277e-39
4.0754771 0.7710641 -0.64388072 5.8083233e-39
4.1172824 0.77348679 -0.64569986 6.0849088e-39
4.17381 0.77891409 -0.64338166 5.9927131e-39
4.2314858 0.78207171 -0.6450085 5.8083233e-39
4.2824335 0.78517228 -0.64507657 5.9005189e-39
4.3267345 0.78368038 -0.64343888 5.7161277e-39
4.3757677 0.78710568 -0.6463142 5.6239306e-39
4.4185724 0.78799301 -0.64473462 5.7161291e-39
4.4731474 0.78305751 -0.64384794 5.7161291e-39
4.5263276 0.78407133 -0.64627612 5.6239306e-39
4.579885 0.77864748 -0.64495385 5.623932e-39
4.6288519 0.78635198 -0.64731801 5.7161277e-39
4.6718292 0.78107262 -0.64434111 5.7161291e-39
4.7221966 0.7762742 -0.64421284 5.7161277e-39
4.7744999 0.78083313 -0.64531243 5.7161277e-39
4.8217049 0.77916402 -0.64501053 5.623932e-39
4.8685756 0.78108907 -0.64575803 5.5317364e-39
4.9267545 0.77675503 -0.64545488 5.5317364e-39
4.9680691 0.77323937 -0.64664894 5.7161262e-39
5.0250778 0.77466518 -0.64685214 5.7161262e-39
5.0731659 0.77147955 -0.64622426 5.7161277e-39
5.1259942 0.773579 -0.64592963 5.6239306e-39
5.1743774 0.76626128 -0.64726323 5.531735e-39
5.2247276 0.76696408 -0.64621037 5.4395408e-39
5.2751822 0.76303983 -0.64785582 5.2551495e-39
5.3247061 0.76329333 -0.64590961 5.4395408e-39
5.3784242 0.76043528 -0.64894795 5.4395408e-39
5.4265952 0.7606498 -0.64733887 5.623932e-39
5.4743457 0.75870144 -0.64803469 5.623932e-39
5.5290413 0.76001012 -0.64795339 5.5317364e-39
5.5734372 0.76062185 -0.6473828 5.4395408e-39
5.6294198 0.76511621 -0.64837134 5.623932e-39
5.6782036 0.76880252 -0.64739978 5.6239306e-39
5.7172055 0.7794174 -0.64814693 5.7161277e-39
5.7785015 0.77865601 -0.64772964 5.7161262e-39
5.8238716 0.79472274 -0.64786267 5.623932e-39
5.8782349 0.78168017 -0.64849693 5.4395408e-39
5.9302306 0.79279035 -0.64787287 5.6239334e-39
5.9714003 0.79268593 -0.64816415 5.623932e-39
6.0327768 0.78882468 -0.64843458 5.7161262e-39
6.0675263 0.79065466 -0.6472404 5.8083219e-39
6.1304588 0.7876516 -0.64843178 5.7161291e-39
6.1657996 0.78651458 -0.64824021 5.623932e-39
6.2243881 0.78564548 -0.64753437 5.6242922e-39
6.2699051 0.78174508 -0.64880663 5.8083233e-39
6.3151565 0.77961433 -0.64787143 5.8083219e-39
6.3672709 0.78181219 -0.64810824 5.7161277e-39
6.420939 0.77438909 -0.64845079 5.8083219e-39
6.4692917 0.77637023 -0.64786398 5.8083219e-39
6.5337119 0.77304608 -0.64839691 5.8083233e-39
6.5656095 0.77340811 -0.6480692 5.8083219e-39
6.6228619 0.77108538 -0.6482411 5.5317364e-39
6.6778541 0.77085876 -0.64831787 5.623932e-39
6.7367306 0.77087826 -0.64756382 5.8083219e-39
6.7797995 0.76445937 -0.64895165 5.9005175e-39
6.8098507 0.76821113 -0.64768994 5.9005189e-39
6.8766112 0.76262468 -0.64834356 5.9927145e-39
6.9220376 0.76210648 -0.64875215 5.9005175e-39
6.9735107 0.76339316 -0.64806366 5.8083233e-39
7.0298429 0.75591499 -0.64890021 5.8083219e-39
7.0783081 0.75776494 -0.64859712 5.7161277e-39
7.1424742 0.75773919 -0.64841604 5.7164878e-39
7.1897063 0.761738 -0.64925772 5.8083233e-39
7.2363415 0.75425863 -0.64859444 5.9005189e-39
7.322793 0.77654058 -0.64967 5.9005189e-39
7.3508496 0.75323695 -0.64921087 5.8083233e-39
7.4271069 0.79908592 -0.64848536 5.9005189e-39
7.4784689 0.77600449 -0.64961791 5.8083233e-39
7.5319262 0.7953769 -0.64867741 5.8083233e-39
7.628943 0.79247236 -0.64901686 5.7164864e-39
7.6599083 0.79237282 -0.6493699 5.9005189e-39
7.7149773 0.78881854 -0.64905286 5.9005189e-39
7.8249106 0.7851674 -0.64926136 5.8083219e-39
7.9197512 0.78038734 -0.6489923 5.7161277e-39
7.9963875 0.77954233 -0.64961499 5.7161277e-39
8.0532713 0.77619076 -0.64925599 5.7161277e-39
8.2011528 0.77110517 -0.64955562 5.9005189e-39
-4.8934155 0.80539447 -0.62868494 8.4553368e-39
-4.805583 0.84253418 -0.64506251 1.1339914e-38
-4.752769 0.82588345 -0.64575267 5.9005161e-39
-4.7231293 0.83700466 -0.64634925 6.2696574e-39
-4.6082087 0.80669284 -0.64535069 7.5603668e-39
-4.5726624 0.83400768 -0.64536023 8.9428976e-39
-4.530973 0.82051873 -0.6467244 1.1339917e-38
-4.4194899 0.8160845 -0.64551383 1.1893077e-38
-4.3596101 0.83423632 -0.64652926 1.0141404e-38
-4.3404036 0.83448112 -0.64647734 9.219832e-39
-4.2635679 0.80288112 -0.6461404 5.4395394e-39
-4.2294436 0.81122679 -0.64527357 6.2696588e-39
-4.1838846 0.81193304 -0.64694691 6.3618488e-39
-4.1101074 0.81518269 -0.64624012 1.1616499e-38
-4.057663 0.81634361 -0.64545208 1.1985271e-38
-4.0287657 0.8218773 -0.64664525 1.1893075e-38
-3.9673252 0.82662803 -0.64633268 1.1893075e-38
-3.9066646 0.80072385 -0.64567417 5.6242851e-39
-3.8772187 0.82869405 -0.64679515 6.7306201e-39
-3.8341346 0.8373009 -0.64641738 6.1771044e-39
-3.7592676 0.81345844 -0.64951617 6.0852689e-39
-3.7304375 0.82839108 -0.64642441 5.9008776e-39
-3.6166353 0.81163871 -0.64714628 6.0852675e-39
-3.5944836 0.82609296 -0.64650625 6.0852675e-39
-3.5219481 0.81944287 -0.64962435 5.9930719e-39
-3.475755 0.82701272 -0.64670902 5.9930719e-39
-3.4140418 0.82216394 -0.64967346 5.9930719e-39
-3.3682835 0.82174975 -0.64665616 5.9930719e-39
-3.3302751 0.82499897 -0.64847261 5.8083219e-39
-3.2685194 0.8199659 -0.64693254 6.2692986e-39
-3.2348671 0.81849617 -0.64783233 6.0852675e-39
-3.1751802 0.83315575 -0.64668131 5.716485e-39
-3.1201859 0.8256495 -0.64734799 5.8086806e-39
-3.0683117 0.83831829 -0.6467151 6.0852689e-39
-3.0295222 0.82628459 -0.64773351 5.9008762e-39
-2.976526 0.82288706 -0.64762402 6.2696588e-39
-2.9286985 0.82258123 -0.64691937 5.9008776e-39
-2.8753591 0.82601631 -0.64745635 6.0852675e-39
-2.8204908 0.83127993 -0.64789283 5.808682e-39
-2.7812636 0.83395404 -0.64679384 5.9930719e-39
-2.7336686 0.82875574 -0.64788085 5.9930733e-39
-2.6636801 0.82763124 -0.64730567 5.716485e-39
-2.6115048 0.81203192 -0.64696723 6.0852675e-39
-2.5754886 0.83830422 -0.64797169 6.0852675e-39
-2.5245304 0.81955481 -0.64610392 5.7164864e-39
-2.4686158 0.82743269 -0.64819503 5.9008776e-39
-2.4333479 0.82406408 -0.6477139 6.1774645e-39
-2.375103 0.82375443 -0.64800197 6.1774631e-39
-2.3155227 0.81596005 -0.64501035 5.9927117e-39
-2.2727435 0.8258003 -0.64677542 5.9930719e-39
-2.2266188 0.82377076 -0.64483923 6.0852661e-39
-2.1814375 0.82505375 -0.64542812 5.8090407e-39
-2.1284997 0.82864171 -0.64296752 5.8083219e-39
-2.0744588 0.82520348 -0.64580745 6.0852675e-39
-2.0154555 0.82254243 -0.64670777 5.9005175e-39
-1.976663 0.82353723 -0.644189 5.9005161e-39
-1.9237338 0.82258385 -0.64525938 5.9930719e-39
-1.8739867 0.82371086 -0.6432845 5.9930733e-39
-1.8332245 0.82888496 -0.64722568 5.9008776e-39
-1.7810338 0.82378018 -0.64341855 5.9930719e-39
-1.7262045 0.81927031 -0.64521855 5.9008776e-39
-1.6689503 0.8271631 -0.64543754 5.8090407e-39
-1.6191049 0.82225609 -0.64494026 5.9008762e-39
-1.5776914 0.83119845 -0.64194006 5.9930719e-39
-1.5301323 0.82845885 -0.64666885 5.9930719e-39
-1.474153 0.83065546 -0.6442219 6.0852675e-39
-1.4222252 0.82241195 -0.64376605 5.9930719e-39
-1.3737761 0.82762855 -0.6441468 5.6242908e-39
-1.3248861 0.8200779 -0.64557296 5.9008762e-39
-1.2757866 0.82701159 -0.64289159 6.2692986e-39
-1.2200353 0.8232013 -0.64488381 5.9008762e-39
-1.175442 0.82620037 -0.64434081 5.716485e-39
-1.1253154 0.82930863 -0.64374661 5.9930719e-39
-1.0746247 0.82666755 -0.64476728 5.993432e-39
-1.0218288 0.82657242 -0.64378464 5.808682e-39
-0.97842747 0.82373399 -0.64566851 6.0852675e-39
-0.92602098 0.82281423 -0.6468178 5.808682e-39
-0.87535095 0.8260752 -0.64622641 6.2696588e-39
-0.8285355 0.8285104 -0.64468658 5.716485e-39
-0.77276528 0.82480282 -0.64658731 5.8086806e-39
-0.72530389 0.82042372 -0.64445817 5.7164864e-39
-0.67933607 0.8236255 -0.64540368 6.0852675e-39
-0.62637866 0.82445526 -0.64499074 5.9008762e-39
-0.57414788 0.82348448 -0.64649391 5.9008776e-39
-0.52989566 0.82596558 -0.64410537 5.8090421e-39
-0.47386935 0.83188045 -0.64433068 5.9008762e-39
-0.42387614 0.81819338 -0.64367217 5.9930719e-39
-0.37784436 0.82940847 -0.64341825 5.9008776e-39
-0.32547089 0.82261074 -0.64543599 5.716485e-39
-0.27342758 0.82601124 -0.6432417 6.0852675e-39
-0.23281245 0.82951009 -0.64418375 6.0852661e-39
-0.17913911 0.82555646 -0.643107 5.716485e-39
-0.12332007 0.82588017 -0.64277905 5.5320937e-39
-0.078490853 0.82164317 -0.64326388 6.1771044e-39
-0.034985173 0.82675105 -0.64411056 6.0852689e-39
0.022868102 0.82967949 -0.63893282 5.9927145e-39
0.069522984 0.83322591 -0.63867456 6.1771044e-39
0.12537451 0.82883936 -0.6384449 6.0849102e-39
0.17689277 0.82736897 -0.63890535 5.9927145e-39
0.22709478 0.82929951 -0.63917905 5.9927145e-39
0.27049303 0.82840741 -0.64012456 5.8083233e-39
0.32597879 0.82333124 -0.64000243 5.7161262e-39
0.37550679 0.82435888 -0.64026481 5.9005189e-39
0.42559719 0.82379073 -0.64069223 5.9005189e-39
0.4806636 0.82779598 -0.64077604 5.9927131e-39
0.52513385 0.82663596 -0.64179182 5.9005175e-39
0.57662994 0.83083838 -0.6420486 5.8083233e-39
0.62829912 0.82779336 -0.64228582 5.8083219e-39
0.67928988 0.82468671 -0.6429618 5.8083219e-39
0.72286332 0.81952149 -0.64302266 5.7161262e-39
0.77547747 0.82907248 -0.64290202 5.7161277e-39
0.82706219 0.82411522 -0.64375812 5.9008776e-39
0.87421846 0.82150429 -0.64385617 5.9927131e-39
0.92916268 0.82400632 -0.64362144 5.9005189e-39
0.97761327 0.81776571 -0.64385676 5.9005175e-39
1.0267078 0.82442021 -0.64426345 5.8083219e-39
1.0779142 0.82890433 -0.64387769 5.623932e-39
1.126527 0.82713777 -0.64415193 5.7161277e-39
1.1768322 0.82447934 -0.64456707 5.8083219e-39
1.2279755 0.82341385 -0.64450157 5.623932e-39
1.2796478 0.82955289 -0.64466947 5.623932e-39
1.3280511 0.82239497 -0.64467871 5.7161277e-39
1.3762574 0.82604265 -0.64500326 5.8083233e-39
1.4253371 0.82018405 -0.64477026 5.7161262e-39
1.4719049 0.82236439 -0.64501858 5.7161277e-39
1.5278925 0.82163066 -0.64503461 5.7161277e-39
1.5816005 0.82984382 -0.6454491 5.9927131e-39
1.6270077 0.82535708 -0.6452859 5.8083233e-39
1.6772985 0.83136988 -0.64574069 5.7161277e-39
1.7269387 0.82466936 -0.64548969 5.6242908e-39
1.7796391 0.82662749 -0.64575565 5.9005189e-39
1.8285689 0.82348329 -0.64578724 5.9927131e-39
1.8742234 0.82289428 -0.64581531 5.9005175e-39
1.9246835 0.82694113 -0.64542431 5.9005189e-39
1.9706974 0.82443064 -0.64552015 5.9005189e-39
2.0214689 0.83037752 -0.64541584 5.9927145e-39
2.0762911 0.81766176 -0.64560628 5.9005189e-39
2.1268139 0.82674956 -0.64552891 5.8083247e-39
2.1727345 0.83003187 -0.6455127 6.0849088e-39
2.2239695 0.82542139 -0.6454078 5.9927131e-39
2.2781029 0.82062691 -0.64530581 5.9927131e-39
2.3281956 0.82312793 -0.64496922 5.7164864e-39
2.3741398 0.82709342 -0.64514112 5.7164864e-39
2.423619 0.82444751 -0.64494824 5.9005189e-39
2.4778268 0.82080138 -0.6449253 5.9927145e-39
2.5281391 0.82493401 -0.64465213 5.9005189e-39
2.5712411 0.8211509 -0.6447922 5.8083219e-39
2.6248188 0.82372224 -0.64539272 5.8083219e-39
2.6744051 0.82833421 -0.64389795 5.9927131e-39
2.725982 0.82586527 -0.64478809 5.9927145e-39
2.7770178 0.83002859 -0.64428872 5.9927145e-39
2.8239071 0.8307485 -0.645069 6.0849088e-39
2.876528 0.83005494 -0.64416075 5.808682e-39
2.92433 0.82697535 -0.64457405 6.0849088e-39
2.9779966 0.82945108 -0.64451182 6.1771044e-39
3.0263474 0.82475543 -0.64441413 6.0849102e-39
3.0777357 0.82776183 -0.64382732 6.0849102e-39
3.1241744 0.82895339 -0.64458424 6.0849102e-39
3.1693816 0.82732338 -0.64366871 5.9005189e-39
3.2262516 0.83108431 -0.64534777 5.9927131e-39
3.2719264 0.82417941 -0.64395458 5.9005189e-39
3.3244522 0.82940251 -0.64471984 5.9927131e-39
3.3717773 0.82704723 -0.64446563 5.9927131e-39
3.4204752 0.82457656 -0.6439876 5.9005189e-39
3.4702363 0.82634205 -0.64459997 5.9927145e-39
3.5245931 0.82422882 -0.64457941 5.8083247e-39
3.5730131 0.81795961 -0.64437765 5.9005189e-39
3.6225796 0.82222921 -0.64418018 5.9927145e-39
3.6740599 0.82005078 -0.64522761 5.9927131e-39
3.725822 0.81698734 -0.6447041 5.9927145e-39
3.7776322 0.81713265 -0.64369249 5.7161277e-39
3.827045 0.81757718 -0.64454162 5.808682e-39
3.8708754 0.81067181 -0.64562052 5.9005189e-39
3.9271393 0.81728756 -0.64490664 5.9927145e-39
3.9718096 0.81208944 -0.64516717 5.9005189e-39
4.0343547 0.81289601 -0.64388847 5.8083233e-39
4.0762944 0.8221876 -0.64353526 5.8083219e-39
4.1207538 0.81679463 -0.64590365 5.9927145e-39
4.1752052 0.82623923 -0.64536649 6.0849088e-39
4.2215309 0.82470876 -0.64501679 5.9005175e-39
4.2758818 0.83413017 -0.64427054 5.9005189e-39
4.3272142 0.83216178 -0.64383835 5.9005189e-39
4.3733215 0.83968532 -0.64585125 5.9005175e-39
4.4175248 0.83267021 -0.64462459 5.7161277e-39
4.4709973 0.83532161 -0.64393771 5.7161277e-39
4.5251474 0.83331281 -0.64535618 5.8083233e-39
4.5838752 0.82801759 -0.64447749 5.8083233e-39
4.6241131 0.83646566 -0.64565313 5.8083233e-39
4.6788969 0.82954478 -0.64325035 5.7161277e-39
4.7238889 0.82796311 -0.64685756 5.7164864e-39
4.7785249 0.83157045 -0.64426237 5.8083233e-39
4.8251858 0.82933271 -0.64627576 5.8083233e-39
4.8718386 0.82846296 -0.64388019 5.623932e-39
4.9308643 0.82538766 -0.6451329 5.5317364e-39
4.9705787 0.82546836 -0.64574862 5.7161262e-39
5.0240726 0.8225401 -0.64713657 5.8083219e-39
5.0714512 0.82000297 -0.64621395 5.7161277e-39
5.1251106 0.82065755 -0.64765185 5.6239306e-39
5.1754184 0.81615257 -0.64608103 5.6239306e-39
5.22855 0.81651592 -0.6461581 5.7161277e-39
5.2730088 0.81774098 -0.64623255 5.623932e-39
5.3233542 0.81518316 -0.64742571 5.6239306e-39
5.3678389 0.81650907 -0.64423865 5.6239306e-39
5.4255152 0.81004763 -0.64732492 5.7161262e-39
5.4730549 0.80845475 -0.64793444 5.7161262e-39
5.527184 0.80654901 -0.64820647 5.4395408e-39
5.580595 0.81013387 -0.64790815 5.3473451e-39
5.6296563 0.8129161 -0.64777225 5.623932e-39
5.6816831 0.81908393 -0.64856696 5.7161277e-39
5.7256021 0.83061135 -0.64823586 5.8083219e-39
5.7738242 0.82880765 -0.64861012 5.8083219e-39
5.829452 0.83999634 -0.64792967 5.7161277e-39
5.8809447 0.83557278 -0.64828295 5.7161277e-39
5.9285378 0.84456593 -0.64775974 5.7161277e-39
5.9688063 0.83605546 -0.64805812 5.7161277e-39
6.0343914 0.8398428 -0.64838254 5.8083219e-39
6.0692043 0.84363914 -0.6471867 5.8083219e-39
6.1288114 0.83632725 -0.64837843 5.8083219e-39
6.1647372 0.83861631 -0.64822233 5.7164864e-39
6.2218094 0.83774167 -0.64770412 5.6242922e-39
6.2682042 0.8346644 -0.64831883 5.9927145e-39
6.3168445 0.83288181 -0.64781725 5.9927145e-39
6.368896 0.83323431 -0.64805573 5.9005189e-39
6.4226441 0.82817602 -0.64839613 5.8083219e-39
6.4709563 0.82906568 -0.64781046 5.7161262e-39
6.5354176 0.82681656 -0.64834255 5.7161277e-39
6.5672507 0.82524484 -0.64801687 5.8083233e-39
6.6245604 0.82478929 -0.64818639 5.8083219e-39
6.6795578 0.82468605 -0.64826256 5.7161277e-39
6.7383971 0.82347697 -0.64751095 5.9005175e-39
6.776845 0.82091546 -0.64884257 5.8083233e-39
6.8100758 0.81853873 -0.64858741 5.9005189e-39
6.8666439 0.81937265 -0.64778137 5.8083233e-39
6.9206004 0.81545693 -0.64878339 5.8083247e-39
6.9751706 0.81599134 -0.64801037 5.9005189e-39
7.0347657 0.80860353 -0.64898479 5.9005189e-39
7.0747175 0.81104356 -0.6487174 5.8083219e-39
7.1226115 0.81027675 -0.648103 5.7161277e-39
7.1834421 0.80474132 -0.64903468 5.8083233e-39
7.2314463 0.80677533 -0.64832759 5.9927145e-39
7.2511292 0.80694318 -0.64896643 6.0849088e-39
7.3210297 0.80355245 -0.64851981 5.9005189e-39
7.3524585 0.80374283 -0.64915937 5.9005189e-39
7.4734588 0.82544315 -0.64974177 5.9005189e-39
7.5281858 0.84909648 -0.64905626 5.8083233e-39
7.630661 0.84655601 -0.64896113 5.9005175e-39
7.6615906 0.84489846 -0.6493172 5.9005189e-39
7.7167249 0.84351283 -0.64899778 5.9927131e-39
7.8149014 0.84023046 -0.6491791 5.9005175e-39
7.8501749 0.83931744 -0.64925861 5.8083233e-39
7.9215713 0.83744627 -0.64893448 5.8083233e-39
7.9981375 0.83423662 -0.64955902 5.7161277e-39
8.0550938 0.83325875 -0.64919794 5.8083233e-39
8.20298 0.82816517 -0.64949745 5.9005189e-39
-4.8934064 0.8736999 -0.62839627 8.5482513e-39
-4.8065219 0.88404858 -0.64551699 1.2077466e-38
-4.7850289 0.89158338 -0.64438063 1.1893075e-38
-4.7260947 0.87901795 -0.64626712 8.0213211e-39
-4.6117725 0.87468487 -0.64569771 5.716485e-39
-4.5714154 0.89419681 -0.64461482 5.9930733e-39
-4.5232787 0.87625843 -0.64670873 8.9429004e-39
-4.4321256 0.86604977 -0.64586449 1.1800879e-38
-4.3837948 0.87386858 -0.64489412 1.1893075e-38
-4.331604 0.87951893 -0.64523667 1.1432107e-38
-4.2661471 0.86418748 -0.64600509 6.4540458e-39
-4.2098484 0.8549965 -0.64515311 5.8086806e-39
-4.1781111 0.86690539 -0.64638454 6.3618544e-39
-4.1121211 0.86246073 -0.64613587 6.5458561e-39
-4.0194993 0.86446506 -0.64656019 1.1800879e-38
-3.9692869 0.87225854 -0.64623135 1.1893075e-38
-3.8724184 0.87264794 -0.64673436 9.9570187e-39
-3.8380697 0.88297486 -0.6464808 6.7306201e-39
-3.7602785 0.85746759 -0.64946884 6.1774631e-39
-3.7243714 0.87865132 -0.64643878 5.6246509e-39
-3.6912494 0.89138114 -0.64669305 6.1774645e-39
-3.6191926 0.86747873 -0.64870054 6.1774631e-39
-3.5862072 0.87629938 -0.64611632 6.2696602e-39
-3.5231254 0.87102747 -0.64956892 5.9008762e-39
-3.4715905 0.87868726 -0.6463939 6.0849088e-39
-3.4232163 0.88026392 -0.64829677 5.9930719e-39
-3.3691447 0.86993861 -0.64669538 5.9008762e-39
-3.3222892 0.87376624 -0.64762354 6.1774631e-39
-3.2627933 0.88019639 -0.64612925 6.0852675e-39
-3.2176714 0.86768627 -0.64773589 5.993432e-39
-3.1670432 0.8745088 -0.64659357 6.8231927e-39
-3.1154063 0.87145704 -0.64768261 5.4398981e-39
-3.0684328 0.88858432 -0.64713383 5.9008762e-39
-3.0292151 0.87499362 -0.64726192 5.7164864e-39
-2.9728343 0.87621212 -0.64750445 6.1771044e-39
-2.9258959 0.88029337 -0.6465078 5.9930705e-39
-2.8826497 0.87957561 -0.64731836 6.1774631e-39
-2.816272 0.87936544 -0.64729011 6.0852675e-39
-2.7864439 0.87862831 -0.64701319 6.1774631e-39
-2.728024 0.8734659 -0.64739269 5.9008776e-39
-2.6749971 0.8727926 -0.6478923 5.9008762e-39
-2.6264188 0.87882656 -0.64785147 6.1774631e-39
-2.5738852 0.87767476 -0.64783204 6.45405e-39
-2.5283883 0.87447476 -0.64527136 5.6242908e-39
-2.4805443 0.87358791 -0.64742595 5.8090407e-39
-2.4213977 0.87539375 -0.64726919 6.1774617e-39
-2.376204 0.87815958 -0.64765763 6.2693e-39
-2.3308065 0.86830813 -0.64382499 5.4398995e-39
-2.2747381 0.87671262 -0.64622104 5.8086806e-39
-2.222173 0.8741473 -0.64621085 5.8090407e-39
-2.1774559 0.87657642 -0.64374727 6.2696588e-39
-2.1242392 0.87440443 -0.64331889 6.2693e-39
-2.0753565 0.87744522 -0.64648664 5.9008776e-39
-2.0281601 0.87604976 -0.64597529 6.0849088e-39
-1.9778297 0.87072992 -0.64453065 6.0852675e-39
-1.9301574 0.87587231 -0.64412254 6.1774631e-39
-1.8757285 0.86969566 -0.64435297 5.8086806e-39
-1.8220552 0.88201213 -0.64670479 5.9930719e-39
-1.7744932 0.87662226 -0.64194 6.2696588e-39
-1.7228532 0.87130475 -0.6452511 5.6242894e-39
-1.6692435 0.8667962 -0.64373887 5.9930733e-39
-1.6283852 0.87340909 -0.64595169 5.9008762e-39
-1.5794743 0.87366927 -0.64332896 5.9930719e-39
-1.5208637 0.87705708 -0.6458081 5.808682e-39
-1.4721972 0.88081706 -0.64468217 5.808682e-39
-1.4200671 0.87168252 -0.64383161 5.9008776e-39
-1.3755028 0.87825906 -0.64434093 5.9930719e-39
-1.3239216 0.87573546 -0.64667159 6.0852675e-39
-1.2734976 0.87228304 -0.64296997 5.808682e-39
-1.2223023 0.87387532 -0.64480901 6.0852675e-39
-1.1781155 0.87515718 -0.64386272 5.9930719e-39
-1.1218598 0.87877518 -0.64490134 5.9008762e-39
-1.0756549 0.87524265 -0.6446349 5.8086806e-39
-1.0273114 0.87871766 -0.64530855 5.9008762e-39
-0.97753406 0.87414318 -0.64421493 6.0852675e-39
-0.92850065 0.87436748 -0.64705026 6.2696588e-39
-0.87610674 0.87938452 -0.64505905 5.8086806e-39
-0.82792741 0.87666196 -0.64402574 5.9008762e-39
-0.77568132 0.87395912 -0.64715582 6.0849088e-39
-0.72198248 0.87283188 -0.64529699 5.9927131e-39
-0.67359078 0.87548763 -0.64545077 5.716485e-39
-0.6222387 0.8773855 -0.64567882 6.0849088e-39
-0.57443291 0.87548071 -0.64669138 6.2696588e-39
-0.53152013 0.87271142 -0.64349437 5.7161262e-39
-0.47746256 0.8857457 -0.64440119 5.9008776e-39
-0.42544174 0.87141085 -0.64498669 5.9930719e-39
-0.38039011 0.88060874 -0.64415091 6.3618544e-39
-0.32756677 0.87666363 -0.6437909 5.8086806e-39
-0.27048934 0.87851965 -0.64363796 5.8086806e-39
-0.23362409 0.87606549 -0.64339709 5.9012364e-39
-0.17662455 0.8718105 -0.64305103 5.9008762e-39
-0.12308061 0.87530059 -0.64375126 6.2696588e-39
-0.081527121 0.8714475 -0.64339 5.808682e-39
-0.030002408 0.87858182 -0.64419496 5.9930733e-39
0.027776333 0.88029665 -0.63969058 5.9927145e-39
0.071178906 0.87749881 -0.63920313 5.9927145e-39
0.12324745 0.87790942 -0.63969994 6.0849088e-39
0.16917165 0.87812662 -0.64041156 5.9927145e-39
0.21973012 0.8789503 -0.64016569 5.8083219e-39
0.27053812 0.87384325 -0.64011937 5.8083233e-39
0.32932809 0.87582666 -0.64047664 5.8083233e-39
0.37614036 0.87534249 -0.64086783 6.1771044e-39
0.42675301 0.87497532 -0.64138496 5.9927145e-39
0.48118448 0.87074018 -0.64119983 5.9005189e-39
0.52907008 0.87661737 -0.64228553 5.8083233e-39
0.57751137 0.87829024 -0.64253044 5.9927145e-39
0.6251173 0.87939781 -0.64220911 5.9927131e-39
0.67431456 0.87299103 -0.64306003 5.8083219e-39
0.72471541 0.87413049 -0.64300513 5.8083233e-39
0.77695525 0.87749219 -0.6427964 5.7161277e-39
0.82419294 0.8760007 -0.64388394 6.0852689e-39
0.87299073 0.87247258 -0.64361858 5.9927145e-39
0.92495179 0.87463117 -0.6439631 5.9927131e-39
0.97820908 0.8668229 -0.64386392 5.9927131e-39
1.0273662 0.87611592 -0.64365745 5.9005175e-39
1.0766656 0.87634873 -0.6440447 5.7161277e-39
1.1253343 0.87988728 -0.64432293 5.7161277e-39
1.1761355 0.87629062 -0.64430833 5.9005189e-39
1.2265689 0.8726728 -0.64450526 5.9927131e-39
1.2761192 0.8793484 -0.6446808 5.9927145e-39
1.3264112 0.87264645 -0.64442271 6.0849088e-39
1.3766075 0.87738937 -0.64501363 5.9927145e-39
1.4263808 0.87491572 -0.64514357 5.7161277e-39
1.4765825 0.87207025 -0.64490151 5.8083219e-39
1.5224137 0.87350798 -0.6453737 5.9005175e-39
1.5697538 0.87630516 -0.64550644 5.9005175e-39
1.6255672 0.87703192 -0.64533257 5.9005189e-39
1.6787748 0.87590265 -0.64555913 5.8083233e-39
1.7227255 0.87713879 -0.64543867 5.808682e-39
1.7751313 0.8764233 -0.64563602 5.9005189e-39
1.8250333 0.87090492 -0.64590406 5.9005189e-39
1.8775716 0.87342072 -0.64553642 5.8083219e-39
1.924889 0.87716985 -0.64606649 5.8083219e-39
1.9716845 0.8744067 -0.64597958 5.8083233e-39
2.0214601 0.87416071 -0.64618635 5.9927131e-39
2.0752356 0.87077528 -0.64530575 5.9005189e-39
2.1245675 0.87789917 -0.64561123 6.0849088e-39
2.1735077 0.87938821 -0.64521974 6.0849102e-39
2.2210903 0.87498844 -0.64539486 5.9005189e-39
2.2759428 0.87331855 -0.64516962 5.623932e-39
2.3267734 0.87602079 -0.64533287 5.7164864e-39
2.3792026 0.87179697 -0.64450318 5.8083233e-39
2.4242983 0.87500018 -0.64544004 5.9005189e-39
2.4736676 0.87382942 -0.64467418 5.9005189e-39
2.526423 0.87470371 -0.64477277 5.9005189e-39
2.5765224 0.87218606 -0.64478374 5.7161262e-39
2.6201158 0.87681085 -0.64494503 5.623932e-39
2.6778214 0.87958181 -0.64471024 5.9005189e-39
2.7286935 0.87458628 -0.64440376 6.0849102e-39
2.7792099 0.87712437 -0.64486837 6.0849088e-39
2.8238552 0.88280904 -0.64471817 6.1771044e-39
2.8706923 0.87878168 -0.64437586 6.0852689e-39
2.9221845 0.87768972 -0.64420402 6.1771058e-39
2.9744115 0.8755312 -0.64507544 6.2693014e-39
3.0232482 0.87957287 -0.64398491 6.0849088e-39
3.0763688 0.87605023 -0.64519149 6.1771044e-39
3.1267645 0.87627518 -0.64456898 6.0849088e-39
3.1774514 0.87848359 -0.64438635 5.9927145e-39
3.2249911 0.8779369 -0.6445632 6.0849088e-39
3.2723694 0.87989306 -0.6445452 6.0849088e-39
3.3244343 0.87316847 -0.6448921 5.9005189e-39
3.3750246 0.87564647 -0.64424747 5.8083233e-39
3.4240477 0.87594581 -0.64507395 5.9005189e-39
3.4740629 0.8712644 -0.64382792 5.9927145e-39
3.5213072 0.87390196 -0.64406121 5.9005189e-39
3.5731115 0.87223983 -0.64380926 5.9927145e-39
3.6251016 0.86955994 -0.64426506 6.0849102e-39
3.6718466 0.87063986 -0.64431864 5.9005175e-39
3.7318492 0.86861944 -0.64452821 5.7161277e-39
3.777652 0.86710227 -0.64297134 5.7161277e-39
3.82196 0.86395079 -0.6453076 5.8083233e-39
3.8734868 0.86638302 -0.6447522 5.9005189e-39
3.9244392 0.86663961 -0.64299881 5.9005189e-39
3.9760478 0.8619222 -0.64442271 5.9005189e-39
4.0382023 0.86067414 -0.64514565 5.7161262e-39
4.0771379 0.86999846 -0.64402282 5.7161262e-39
4.1188583 0.87498927 -0.64418268 5.9005189e-39
4.176661 0.87537771 -0.64524263 6.0849088e-39
4.2263265 0.88085657 -0.64458853 5.9927131e-39
4.2747474 0.88111943 -0.64444864 5.9005189e-39
4.3277774 0.8848623 -0.64466953 5.9927131e-39
4.3692441 0.88352352 -0.64455801 5.9005175e-39
4.4222288 0.88317454 -0.64425862 5.8083233e-39
4.4696674 0.88663089 -0.64553881 5.8083219e-39
4.5263181 0.88505709 -0.64396501 5.9005189e-39
4.5844097 0.88102096 -0.64579338 5.8083233e-39
4.622725 0.88095951 -0.64343852 5.7161277e-39
4.6772394 0.88139623 -0.64479256 5.808682e-39
4.7203832 0.87920797 -0.6455856 5.7164864e-39
4.7837615 0.87804312 -0.64459532 5.7161277e-39
4.8240886 0.88007897 -0.64611959 5.7161277e-39
4.8748846 0.87657052 -0.64403135 5.7161262e-39
4.9271188 0.8741737 -0.64708775 5.623932e-39
4.9706154 0.87471592 -0.64487261 5.6239306e-39
5.0240803 0.86953092 -0.6468575 5.8083219e-39
5.0688114 0.87041688 -0.64485198 5.7161277e-39
5.1225333 0.86959296 -0.6472398 5.6239306e-39
5.1745152 0.86829579 -0.64497805 5.4395394e-39
5.2232795 0.86396462 -0.64672697 5.623932e-39
5.2704215 0.86882395 -0.64541429 5.5317364e-39
5.3170738 0.86452895 -0.64769238 5.6239306e-39
5.3649478 0.86491746 -0.64494264 5.8083219e-39
5.4235024 0.86087006 -0.64753097 5.8083219e-39
5.4722643 0.85831559 -0.64759713 5.7161277e-39
5.5306177 0.85664248 -0.64798844 5.623932e-39
5.5805764 0.86819047 -0.64792305 5.7161262e-39
5.632339 0.87200528 -0.64827287 5.8083219e-39
5.6815701 0.8701306 -0.64766473 5.9005175e-39
5.7176738 0.88180369 -0.64871538 5.9005189e-39
5.7695575 0.882137 -0.64826828 5.8083219e-39
5.8201284 0.87231588 -0.64801341 5.8083233e-39
5.8738794 0.88276196 -0.64862663 5.7161262e-39
5.9289279 0.88655114 -0.64825469 5.8083219e-39
5.9686036 0.88337916 -0.64848167 5.8083233e-39
6.0360065 0.8908608 -0.64833033 5.9005189e-39
6.0708179 0.89466828 -0.64713436 5.9005189e-39
6.1303964 0.88624716 -0.64832771 5.8083219e-39
6.1663818 0.89072794 -0.64816922 5.9008776e-39
6.2233834 0.88747364 -0.64765292 5.808682e-39
6.2698689 0.8873418 -0.64826483 5.9927145e-39
6.3184538 0.88380259 -0.6477648 5.9927145e-39
6.3705215 0.88465685 -0.6480034 5.9005189e-39
6.424346 0.88196266 -0.64834106 5.9005189e-39
6.4726195 0.88176095 -0.6477567 5.8083219e-39
6.5302787 0.8808012 -0.64838135 5.8083219e-39
6.5616531 0.8783102 -0.648018 5.9005189e-39
6.6158485 0.87615752 -0.64829725 5.9005189e-39
6.6769404 0.87634552 -0.64836937 5.8083219e-39
6.7303061 0.87152475 -0.64829016 5.9005175e-39
6.7784824 0.87270725 -0.64878917 5.9005189e-39
6.8117704 0.87195653 -0.64853257 5.8083233e-39
6.8683062 0.87197399 -0.64772749 5.8083219e-39
6.9222765 0.86824286 -0.64872944 5.9005189e-39
6.9768324 0.86859006 -0.64795721 5.9927145e-39
7.0365453 0.86453819 -0.64892793 5.9927131e-39
7.0763912 0.86378133 -0.64866352 5.9005189e-39
7.1243105 0.86388588 -0.64804888 5.7164864e-39
7.1851978 0.85998619 -0.64897823 5.8083233e-39
7.2331433 0.86038285 -0.64827287 5.9927145e-39
7.252737 0.85744739 -0.64891481 6.0849088e-39
7.3256464 0.86470652 -0.64867324 6.1771044e-39
7.3540759 0.85425133 -0.64910936 6.1771058e-39
7.4297762 0.87091792 -0.64832604 5.9927145e-39
7.4816079 0.87422848 -0.64951754 5.8083247e-39
7.5398283 0.87262911 -0.64816582 5.8083233e-39
7.6320844 0.89132804 -0.64891511 6.0849088e-39
7.6632681 0.89742303 -0.64926368 6.0849088e-39
7.7180285 0.88453215 -0.64895564 5.9927145e-39
7.8164282 0.88788664 -0.64913106 5.9005189e-39
7.8514833 0.88034356 -0.64921671 5.9927131e-39
7.9229493 0.88024396 -0.64889288 5.8083233e-39
7.999444 0.87525606 -0.64951634 5.8083233e-39
8.0564661 0.8760612 -0.64915508 5.9930733e-39
8.2043533 0.87096119 -0.64945424 5.9927145e-39
-4.8934007 0.91457379 -0.6282236 8.5475311e-39
-4.8081889 0.92545474 -0.64542574 1.1893075e-38
-4.7636957 0.94084853 -0.64424443 1.1985271e-38
-4.7152476 0.92626071 -0.64504796 1.0510174e-38
-4.6142101 0.93428898 -0.64556623 9.9570187e-39
-4.5506573 0.94155687 -0.64448392 1.1709048e-38
-4.5205903 0.93227887 -0.64637715 1.0971143e-38
-4.4889746 0.93837488 -0.64573669 1.0971504e-38
-4.4342399 0.91697919 -0.64575219 1.1893075e-38
-4.3535066 0.94221252 -0.64470577 1.1985271e-38
-4.3404675 0.9084785 -0.64659452 1.1800881e-38
-4.2842178 0.93273783 -0.64590073 1.1247723e-38
-4.1719136 0.91894877 -0.64630675 8.9432493e-39
-4.1278992 0.92159146 -0.6461038 8.5744836e-39
-4.0152512 0.91308558 -0.64648914 1.1248081e-38
-3.9703636 0.925556 -0.64624858 1.1800879e-38
-3.8662117 0.9238075 -0.64635998 1.1616853e-38
-3.8333082 0.93192703 -0.64599442 1.0787119e-38
-3.7615421 0.91248256 -0.64940977 6.3614943e-39
-3.7156818 0.93083704 -0.6459924 5.8090407e-39
-3.6707301 0.92744827 -0.64662093 6.177103e-39
-3.6389868 0.91238737 -0.64946896 6.8224724e-39
-3.5838346 0.93278021 -0.64612877 6.0852675e-39
-3.5312922 0.92698431 -0.64767694 5.9008776e-39
-3.4704776 0.93145055 -0.6460911 6.4536899e-39
-3.4182281 0.92654544 -0.64741582 5.9930719e-39
-3.365695 0.91336477 -0.6462611 6.0856276e-39
-3.318913 0.92378706 -0.64668411 5.3477039e-39
-3.2781866 0.92093545 -0.6463477 6.2696574e-39
-3.2194312 0.92507195 -0.64730591 5.9008762e-39
-3.170018 0.92873353 -0.64639378 6.1771044e-39
-3.1275864 0.91726089 -0.64757842 5.9930733e-39
-3.0773118 0.92837298 -0.64615852 6.1774645e-39
-3.0289893 0.92949444 -0.64764118 6.0849088e-39
-2.9697969 0.91902673 -0.64753366 5.9930719e-39
-2.9339733 0.93209505 -0.64641392 5.6246495e-39
-2.8774447 0.92850924 -0.64784038 6.3614943e-39
-2.8106251 0.9297443 -0.64718658 6.0852675e-39
-2.77828 0.92885005 -0.64736372 6.1774631e-39
-2.7253323 0.92210567 -0.64783168 5.9930705e-39
-2.6747813 0.92732513 -0.64707386 6.0856262e-39
-2.6161468 0.92823732 -0.647816 6.0856276e-39
-2.569226 0.91914129 -0.6481837 6.177103e-39
-2.5283308 0.92468041 -0.64544982 5.9930733e-39
-2.477083 0.92907917 -0.64743257 5.9008776e-39
-2.4232385 0.9292382 -0.64759862 6.4536899e-39
-2.3800483 0.92546922 -0.64786381 6.2693e-39
-2.3290958 0.91872811 -0.64422715 5.9008776e-39
-2.2739365 0.92379797 -0.64561266 5.9927131e-39
-2.2258706 0.92685723 -0.64644367 5.9008762e-39
-2.1759748 0.92792702 -0.64370018 5.9930719e-39
-2.1258461 0.9272427 -0.64510101 5.7164864e-39
-2.0645728 0.92179406 -0.64649415 6.1774645e-39
-2.0187411 0.9278549 -0.64585817 6.0849088e-39
-1.9662859 0.92244369 -0.64392316 5.9008762e-39
-1.925675 0.92274553 -0.64287984 5.9008776e-39
-1.8725884 0.9223153 -0.64491904 5.9930719e-39
-1.8168703 0.93150032 -0.64627922 6.1771044e-39
-1.7755125 0.92687994 -0.64156997 6.0852675e-39
-1.7258275 0.92004746 -0.6455211 5.9930733e-39
-1.6769041 0.9166041 -0.64553863 5.8086806e-39
-1.6230313 0.92384505 -0.6461882 6.5458855e-39
-1.5735798 0.92480272 -0.64246082 6.0852675e-39
-1.524727 0.92549193 -0.64581668 5.9008762e-39
-1.4771537 0.92967963 -0.64431751 6.0849088e-39
-1.4208382 0.92704886 -0.643453 5.9008762e-39
-1.3725156 0.92766613 -0.64478379 5.9930719e-39
-1.3293233 0.92929292 -0.64410532 5.9008762e-39
-1.2735082 0.92060006 -0.64422655 6.0852675e-39
-1.2251821 0.92428482 -0.64408982 6.1771044e-39
-1.1784863 0.92796159 -0.64474893 5.9008762e-39
-1.1221937 0.92804039 -0.6448881 5.9930719e-39
-1.0779352 0.92441148 -0.64452732 5.9930733e-39
-1.0239221 0.930866 -0.64544094 5.9930719e-39
-0.97157514 0.92526352 -0.64458495 5.8086806e-39
-0.92212868 0.92140198 -0.64646751 5.7164864e-39
-0.87272841 0.92999566 -0.64584118 6.1774631e-39
-0.82520109 0.92680204 -0.64498049 5.9930719e-39
-0.77036273 0.92435324 -0.64754081 5.808682e-39
-0.72296733 0.92542177 -0.64447331 5.8086806e-39
-0.6770612 0.92646962 -0.64669555 5.9008762e-39
-0.6240977 0.92378819 -0.64546579 5.9930733e-39
-0.57580644 0.92448187 -0.64668369 5.9930719e-39
-0.52599543 0.92528355 -0.64410901 6.0852689e-39
-0.47789773 0.93197954 -0.64552826 5.6242894e-39
-0.42387366 0.92621976 -0.64468497 6.2696588e-39
-0.3800621 0.92522746 -0.64345902 6.1774631e-39
-0.32583302 0.92324352 -0.64429516 5.8086806e-39
-0.27439755 0.92723846 -0.64476585 5.8086806e-39
-0.23213831 0.92058575 -0.64493346 5.9930719e-39
-0.1732133 0.92158043 -0.64427596 6.0852675e-39
-0.12246861 0.92725289 -0.64529043 5.7168451e-39
-0.078750022 0.92339307 -0.64452755 6.1771044e-39
-0.024543433 0.92952591 -0.64506257 6.1771044e-39
0.02413659 0.92672706 -0.63954902 6.0849102e-39
0.073710464 0.9257111 -0.64047408 5.9927145e-39
0.12462512 0.92896926 -0.64018023 6.0849102e-39
0.16865186 0.93184823 -0.64029998 6.1771044e-39
